ply
format ascii 1.0
comment PCL generated
element vertex 1348
property float x
property float y
property float z
element camera 0
property float view_px
property float view_py
property float view_pz
property float x_axisx
property float x_axisy
property float x_axisz
property float y_axisx
property float y_axisy
property float y_axisz
property float z_axisx
property float z_axisy
property float z_axisz
property float focal
property float scalex
property float scaley
property float centerx
property float centery
property int viewportx
property int viewporty
property float k1
property float k2
end_header
-0.235038 0.53546363 -0.069752023
-0.22479904 0.53539318 -0.069752
-0.21392179 0.53512692 -0.067186683
-0.24588053 0.54503155 -0.067125216
-0.23473303 0.54449725 -0.069751985
-0.22478707 0.54492313 -0.069752015
-0.21388467 0.5456636 -0.067187652
-0.24586155 0.55505568 -0.067307718
-0.23487911 0.55474633 -0.069751985
-0.22475435 0.55478799 -0.069752008
-0.21372722 0.55490816 -0.066597402
-0.24570324 0.56471109 -0.066373877
-0.23512691 0.56490833 -0.069752
-0.22457239 0.56494278 -0.069751985
-0.21403551 0.56483287 -0.067573071
-0.24581023 0.57317954 -0.067297481
-0.23527855 0.57545757 -0.069752008
-0.22446549 0.57431543 -0.069751985
-0.21388321 0.57515949 -0.067103378
-0.24616279 0.58491766 -0.066681765
-0.23495181 0.58536875 -0.069751985
-0.22502288 0.58499539 -0.069751985
-0.21371184 0.58539772 -0.06618686
-0.24568246 0.59520704 -0.066906594
-0.23487711 0.59443194 -0.069751985
-0.22545442 0.59473747 -0.069751985
-0.21358493 0.59516424 -0.066831738
-0.24634244 0.60400403 -0.066395044
-0.23471962 0.60456461 -0.069751985
-0.22456536 0.60544163 -0.069751993
-0.21394013 0.60503048 -0.06716805
-0.24607643 0.61496359 -0.066909395
-0.23493217 0.61545396 -0.069751985
-0.22505924 0.61458248 -0.069751985
-0.21314302 0.61509311 -0.066087633
-0.24587381 0.62447292 -0.066762164
-0.23524307 0.62464112 -0.069751985
-0.22471102 0.62567776 -0.069751985
-0.21372372 0.62516111 -0.067064479
-0.24583735 0.63502252 -0.066696465
-0.23478203 0.63485867 -0.069751985
-0.22564162 0.63506442 -0.069752
-0.21352936 0.63472039 -0.066491336
-0.24596477 0.64455622 -0.066787444
-0.2347749 0.64472872 -0.069751985
-0.22559468 0.64502209 -0.069751985
-0.21383342 0.64485472 -0.066872708
-0.24605884 0.65526795 -0.066734031
-0.23473413 0.65453744 -0.069751985
-0.22487634 0.65516633 -0.069752023
-0.2139935 0.65333319 -0.066615872
-0.24605124 0.66457754 -0.067105405
-0.23461273 0.6651969 -0.069751985
-0.22509831 0.66514951 -0.069752008
-0.21393505 0.66506416 -0.067239679
-0.24600776 0.67498791 -0.06645976
-0.2345394 0.67537838 -0.069751985
-0.22504646 0.6752708 -0.069752008
-0.21342249 0.67482173 -0.066211529
-0.24604011 0.68490297 -0.066486821
-0.23503968 0.68560803 -0.06975203
-0.22552668 0.67872536 -0.069832928
-0.21377969 0.68507767 -0.067310497
-0.24535321 0.69596851 -0.066198625
-0.23517057 0.69589084 -0.066996612
-0.22507101 0.69604647 -0.066793367
-0.2148203 0.69487792 -0.066238739
-0.24593787 0.70175451 -0.064737014
-0.21275026 0.70277989 -0.065233603
-0.24665457 0.31578982 -0.054456066
-0.21282625 0.31588271 -0.054987233
-0.24612664 0.32352453 -0.054617159
-0.23542848 0.3204391 -0.054549109
-0.22550301 0.32043898 -0.055150539
-0.21348161 0.32335606 -0.054942656
-0.24771306 0.33447412 -0.054705448
-0.21171293 0.33520758 -0.054855287
-0.24771307 0.34480512 -0.055334017
-0.21233054 0.34782755 -0.054807208
-0.24730389 0.35852712 -0.055941101
-0.2117129 0.35450426 -0.055351734
-0.24771306 0.36492679 -0.055367582
-0.2117129 0.36461267 -0.054959193
-0.24771307 0.37476373 -0.055024996
-0.2117129 0.37466571 -0.0548665
-0.24771306 0.38509876 -0.054442156
-0.21229209 0.38514453 -0.055475671
-0.24771307 0.39505807 -0.055156581
-0.2117129 0.39461264 -0.054416843
-0.24771307 0.40552464 -0.055335578
-0.21171293 0.40540084 -0.055049203
-0.24734803 0.41593543 -0.055486687
-0.2119402 0.41404992 -0.05540926
-0.24771307 0.42485055 -0.05447318
-0.21171293 0.42535132 -0.055688564
-0.24735633 0.43846527 -0.054869682
-0.2117129 0.4350366 -0.05498147
-0.24771307 0.44461885 -0.054616604
-0.21195441 0.44653356 -0.055492815
-0.24771307 0.45533434 -0.055369612
-0.21171291 0.45541123 -0.055116996
-0.24771306 0.46428534 -0.055545188
-0.21171293 0.4646405 -0.054824427
-0.24768931 0.47377387 -0.05496246
-0.2117129 0.47467768 -0.055278193
-0.24771307 0.48496336 -0.055324849
-0.21171294 0.48500121 -0.054902926
-0.24771307 0.49540263 -0.056185868
-0.2117129 0.49507269 -0.055239648
-0.24771307 0.5052045 -0.055181321
-0.21171291 0.50489193 -0.054917522
-0.24771307 0.51490867 -0.054821476
-0.21171291 0.51513684 -0.054970302
-0.24771307 0.52465236 -0.054816082
-0.2117129 0.52498001 -0.055334903
-0.24771307 0.53480279 -0.055532467
-0.2117129 0.53516018 -0.054496679
-0.24771307 0.54426736 -0.055874102
-0.2117129 0.54568148 -0.055135582
-0.247694 0.55621761 -0.05522142
-0.21171291 0.55506301 -0.055306647
-0.24771307 0.56473273 -0.054636095
-0.21171291 0.56514889 -0.055386104
-0.24771307 0.57491827 -0.055685163
-0.21171291 0.57485884 -0.05511833
-0.24771307 0.58530754 -0.055661015
-0.21171291 0.58532381 -0.054846846
-0.24771307 0.59478891 -0.054864574
-0.2117129 0.59522504 -0.055614337
-0.24771307 0.6043424 -0.055008866
-0.21171291 0.60508811 -0.053903356
-0.24771306 0.61512953 -0.05428021
-0.2117129 0.61511928 -0.055107992
-0.24771307 0.624865 -0.055021442
-0.21171291 0.62479645 -0.054774776
-0.24771307 0.63455784 -0.055101518
-0.21171291 0.635472 -0.055939618
-0.24771307 0.64518815 -0.055381536
-0.2117129 0.64537853 -0.055175155
-0.24771307 0.65474403 -0.054534573
-0.2117129 0.6549291 -0.054805461
-0.24771306 0.66512161 -0.054931391
-0.21171291 0.66481411 -0.054860961
-0.24771307 0.67442769 -0.054697987
-0.2117129 0.67502362 -0.055430669
-0.24771307 0.68516338 -0.055019837
-0.21171291 0.68525577 -0.055165738
-0.24576667 0.69642019 -0.054937098
-0.23492925 0.69743878 -0.055183299
-0.22522633 0.69743848 -0.054482121
-0.2137505 0.69620234 -0.055227581
-0.2465675 0.70290279 -0.055028826
-0.21284302 0.70289069 -0.055945873
-0.24614891 0.31832975 -0.045333426
-0.21297003 0.31594154 -0.045146219
-0.2459815 0.32524839 -0.045117147
-0.23468073 0.32043898 -0.045204584
-0.22520229 0.3255924 -0.045816533
-0.21394204 0.32712957 -0.045245491
-0.24768643 0.3395429 -0.045213535
-0.2117129 0.33532012 -0.044947784
-0.24771307 0.34546933 -0.045048367
-0.2117129 0.34503406 -0.045054607
-0.24771307 0.35498202 -0.044625837
-0.212211 0.35474882 -0.045084231
-0.24771307 0.36453184 -0.045030639
-0.21171291 0.36499807 -0.045616183
-0.24771307 0.37499878 -0.044778418
-0.2117129 0.37550664 -0.04455962
-0.24771307 0.38567001 -0.045311324
-0.21171291 0.38482636 -0.044991288
-0.24771307 0.39450008 -0.045110434
-0.21171293 0.39525044 -0.045170031
-0.24771307 0.40537044 -0.044688646
-0.21230286 0.40914151 -0.045016035
-0.24771307 0.4156763 -0.044802871
-0.21174668 0.41351536 -0.045172673
-0.24771307 0.42455751 -0.044748072
-0.21171291 0.42467958 -0.045052204
-0.24661237 0.43459371 -0.04544384
-0.21227604 0.43605241 -0.045443214
-0.24771307 0.44445542 -0.045028813
-0.21171291 0.44530213 -0.045096043
-0.24771307 0.45505795 -0.0443458
-0.21171291 0.45483604 -0.045719787
-0.24771307 0.46498927 -0.044985246
-0.2117129 0.46489823 -0.04519948
-0.24771306 0.47502747 -0.044866811
-0.21171291 0.47499973 -0.044602185
-0.24710897 0.48670965 -0.046095807
-0.2117129 0.48445895 -0.045217238
-0.24771307 0.49436107 -0.045133878
-0.2117129 0.49488017 -0.045198143
-0.24771307 0.50535214 -0.044279888
-0.2117129 0.50555468 -0.044458997
-0.24771307 0.51454395 -0.04520091
-0.21171291 0.51462144 -0.045753948
-0.24702075 0.52441269 -0.045251861
-0.21173483 0.52416575 -0.045503426
-0.24771307 0.53479964 -0.04547856
-0.21233532 0.53821266 -0.045116324
-0.24771306 0.5451445 -0.044844966
-0.2117129 0.54454321 -0.045361482
-0.24771307 0.55525625 -0.045136373
-0.2117129 0.55548793 -0.045461323
-0.24771307 0.56533343 -0.045478966
-0.21243292 0.56053329 -0.045468487
-0.24771307 0.57538557 -0.045153894
-0.21171293 0.57466274 -0.044395715
-0.24771307 0.58577526 -0.045420192
-0.21171291 0.58424616 -0.04508974
-0.24771307 0.5951857 -0.045043543
-0.21171293 0.59527338 -0.044851638
-0.24706833 0.60522914 -0.045910191
-0.2117527 0.59944373 -0.045135587
-0.24771307 0.61532736 -0.044693403
-0.2117129 0.6149776 -0.045037664
-0.24771307 0.6251536 -0.045053717
-0.2117129 0.62513471 -0.044850644
-0.24771307 0.63482678 -0.044617586
-0.2117129 0.63565105 -0.045654349
-0.24771306 0.64462578 -0.045009233
-0.21171293 0.64496213 -0.044469457
-0.24771307 0.65379798 -0.045362994
-0.2117129 0.654531 -0.045401808
-0.24771307 0.66501838 -0.045084599
-0.2117129 0.66458035 -0.044825558
-0.24771306 0.6745488 -0.045816388
-0.21225835 0.67275923 -0.045571622
-0.24771307 0.68489045 -0.044459272
-0.21171291 0.68524671 -0.04527127
-0.24598514 0.69618922 -0.045164004
-0.23479258 0.69743884 -0.044523638
-0.22490317 0.69743872 -0.044809863
-0.21443366 0.68923467 -0.045530528
-0.24677646 0.70274574 -0.04575194
-0.21286631 0.70284915 -0.04490082
-0.24655201 0.31607407 -0.035018999
-0.21281466 0.31589499 -0.034615252
-0.24573049 0.32666638 -0.03574986
-0.23503017 0.32043916 -0.035067774
-0.22507931 0.32043901 -0.035246253
-0.21429352 0.322896 -0.035603367
-0.24771307 0.33529168 -0.034658693
-0.21171291 0.33488891 -0.034147911
-0.24771307 0.34459448 -0.03553969
-0.2117129 0.34430286 -0.035459623
-0.24771307 0.35450637 -0.034425028
-0.2121039 0.35906988 -0.035662908
-0.24771307 0.36529428 -0.035031445
-0.21171293 0.36537042 -0.034798566
-0.24771307 0.37482834 -0.034173597
-0.2117129 0.37547451 -0.035178293
-0.24771307 0.38440883 -0.035703078
-0.2117129 0.38514039 -0.035148181
-0.24771307 0.39435211 -0.03509273
-0.2117129 0.39452398 -0.034741372
-0.24771307 0.4056088 -0.035017375
-0.2117129 0.40493056 -0.03478324
-0.24771307 0.41479367 -0.035491053
-0.2117129 0.41563454 -0.035193756
-0.24771307 0.42527863 -0.034526184
-0.21171291 0.42547348 -0.0348523
-0.24771307 0.43453962 -0.034556966
-0.21171291 0.43496865 -0.035400443
-0.24704827 0.44772318 -0.035445437
-0.21171291 0.4450987 -0.03490274
-0.24771307 0.45523617 -0.034503989
-0.2117129 0.45506591 -0.034986004
-0.24771307 0.46521455 -0.033877563
-0.2117129 0.46430981 -0.03493413
-0.24771307 0.47548833 -0.034916487
-0.2117129 0.47539675 -0.035186235
-0.24771307 0.48586485 -0.035289254
-0.21171293 0.48523664 -0.034737572
-0.24771307 0.49455276 -0.034720086
-0.21171291 0.49444953 -0.034879338
-0.24771307 0.50516969 -0.035127543
-0.21171291 0.50496191 -0.035212614
-0.24771306 0.51533216 -0.034707759
-0.2117129 0.5149411 -0.035300367
-0.24771307 0.52568418 -0.035386696
-0.2117129 0.52548516 -0.034885354
-0.24771307 0.53582907 -0.034864374
-0.21171293 0.53564835 -0.034838792
-0.24771307 0.5452491 -0.034993526
-0.21171293 0.54529721 -0.035031833
-0.24708678 0.55374521 -0.035242468
-0.21171291 0.55483937 -0.034778591
-0.24771307 0.56567103 -0.0349731
-0.21225022 0.56697696 -0.035213534
-0.24771307 0.57448387 -0.034909476
-0.21171291 0.57441467 -0.035193514
-0.24771307 0.5848006 -0.034869872
-0.21239604 0.57957554 -0.035424136
-0.24771307 0.59443855 -0.035107359
-0.21171291 0.5952158 -0.034786142
-0.24771307 0.60462075 -0.034813695
-0.21171291 0.60521841 -0.034994707
-0.24771307 0.6151495 -0.035096291
-0.2117129 0.61515009 -0.035476409
-0.24771307 0.62439704 -0.035578199
-0.2117129 0.62544 -0.035784986
-0.24771307 0.63434196 -0.035488095
-0.2117521 0.62915045 -0.03659587
-0.24771307 0.64512432 -0.035243593
-0.2117129 0.64481413 -0.034592867
-0.24718438 0.65049934 -0.035704751
-0.2117129 0.65473139 -0.035161078
-0.24771307 0.66484845 -0.035534658
-0.21171291 0.66522521 -0.034899425
-0.24771307 0.67481059 -0.035150506
-0.21171291 0.67460984 -0.035155613
-0.24771307 0.68441141 -0.035372775
-0.21171291 0.68585795 -0.035016082
-0.2459743 0.69434249 -0.035251725
-0.23414944 0.69657844 -0.034948334
-0.22467367 0.69743866 -0.035929829
-0.21384628 0.6966151 -0.034958094
-0.24666397 0.70271003 -0.035452627
-0.2129097 0.70296407 -0.035615094
-0.24625194 0.31901151 -0.024934083
-0.21272272 0.3165116 -0.025147034
-0.24589834 0.32335329 -0.024837894
-0.23546258 0.32043904 -0.025243966
-0.22534791 0.32034969 -0.026237871
-0.213517 0.32303226 -0.025115477
-0.24771306 0.33384052 -0.025235942
-0.21252373 0.34293723 -0.025724666
-0.24771307 0.34520572 -0.025379259
-0.2117129 0.34509853 -0.025675952
-0.24685268 0.36005232 -0.026846806
-0.21171291 0.35546464 -0.024753634
-0.24771307 0.36511761 -0.025446909
-0.21171291 0.3648794 -0.025441634
-0.24771307 0.37521824 -0.024953071
-0.21171291 0.37509173 -0.024489639
-0.24716124 0.38776147 -0.025024896
-0.2117129 0.38499486 -0.024603404
-0.24771306 0.39532572 -0.024896799
-0.21171291 0.39552808 -0.025308663
-0.24702075 0.40398183 -0.025717292
-0.2117129 0.40574864 -0.025464496
-0.24771307 0.41534925 -0.024884162
-0.21171291 0.4142718 -0.024397327
-0.24771307 0.42477727 -0.025495166
-0.21171291 0.42541417 -0.02498121
-0.24716789 0.4345988 -0.025138194
-0.2117129 0.43504417 -0.024609063
-0.24771307 0.444904 -0.024829907
-0.2122754 0.44578269 -0.024380187
-0.24771307 0.45501414 -0.024787411
-0.2117129 0.45495391 -0.025138306
-0.24735329 0.46836621 -0.025413679
-0.2117129 0.46530193 -0.024367398
-0.24771307 0.47479501 -0.024960725
-0.2117129 0.47454381 -0.025287056
-0.24771307 0.48331878 -0.024983788
-0.21171291 0.48480991 -0.024833864
-0.24771307 0.49428943 -0.025430551
-0.2117129 0.49528578 -0.025321759
-0.24771307 0.50569767 -0.024293983
-0.21220273 0.50718337 -0.025698865
-0.24771307 0.51303834 -0.024663949
-0.2117129 0.51527739 -0.024506168
-0.24771307 0.52540332 -0.025151635
-0.212258 0.51841623 -0.025684422
-0.24771307 0.53458345 -0.024522157
-0.2117129 0.5349322 -0.024880087
-0.24771307 0.54519498 -0.024653636
-0.21259099 0.5449419 -0.026003689
-0.24714525 0.55291635 -0.026399339
-0.2117129 0.55564851 -0.024395186
-0.24769166 0.56776208 -0.025311306
-0.21171293 0.56489503 -0.024916746
-0.24771307 0.57510906 -0.024526475
-0.21229355 0.57073069 -0.024703268
-0.24771307 0.58512157 -0.025605863
-0.21174043 0.58223641 -0.025834354
-0.24771307 0.59451097 -0.024755178
-0.21171291 0.59514743 -0.024626803
-0.24771307 0.60455376 -0.025445076
-0.21171293 0.60526681 -0.025001388
-0.24709238 0.61323798 -0.024796508
-0.21171291 0.61435992 -0.025626469
-0.24771307 0.62492526 -0.024942363
-0.21171291 0.62507665 -0.025057325
-0.24771307 0.63370973 -0.025025345
-0.2117129 0.63482565 -0.025701331
-0.24771306 0.6448195 -0.025193222
-0.21241879 0.64484161 -0.025433661
-0.24771307 0.65554905 -0.024852313
-0.21171291 0.65488678 -0.024319995
-0.24719134 0.66153985 -0.024448769
-0.21171291 0.66541755 -0.024975494
-0.24771307 0.67486447 -0.025455363
-0.2117129 0.67523021 -0.024493549
-0.24771307 0.68484694 -0.024618581
-0.21172918 0.67852277 -0.025644589
-0.24537806 0.69140089 -0.025652274
-0.23475099 0.69437033 -0.025495963
-0.22514988 0.69570005 -0.025167946
-0.2135711 0.6960606 -0.025198692
-0.24641646 0.70294815 -0.024476714
-0.21273103 0.70258331 -0.024838021
-0.24677694 0.31912297 -0.014661624
-0.21286131 0.31632319 -0.014776063
-0.24585742 0.32896709 -0.015022755
-0.23533194 0.32043916 -0.014877067
-0.22511585 0.32102281 -0.015557076
-0.21353532 0.32581049 -0.015431145
-0.24771307 0.33522299 -0.014906215
-0.21171291 0.33909315 -0.016006142
-0.24771307 0.34477055 -0.015056901
-0.2117129 0.34492588 -0.014761957
-0.24771307 0.35509554 -0.01581065
-0.21171293 0.35481706 -0.015382251
-0.24771307 0.36527488 -0.01540327
-0.21171291 0.36404976 -0.015285358
-0.24716696 0.37747544 -0.015634758
-0.2117129 0.37547368 -0.015175807
-0.24771307 0.38507199 -0.015410042
-0.21209599 0.38346452 -0.015866093
-0.24771307 0.40012565 -0.015974896
-0.2117129 0.39407328 -0.015277486
-0.24771307 0.4051328 -0.015128993
-0.2117129 0.40487117 -0.015369638
-0.24771307 0.41490191 -0.015032982
-0.2117129 0.41483083 -0.015260036
-0.24771306 0.42486811 -0.014669416
-0.2117129 0.42526218 -0.015590754
-0.24771307 0.43806112 -0.015621051
-0.21171291 0.43809983 -0.016268583
-0.2463647 0.44822523 -0.016363429
-0.21246292 0.44624624 -0.015770657
-0.24771307 0.45505932 -0.015688306
-0.2117129 0.45481211 -0.016046576
-0.24771307 0.4648833 -0.014829968
-0.21171291 0.46506533 -0.015121331
-0.24771306 0.47436628 -0.01500706
-0.2117129 0.47450882 -0.015534513
-0.24771306 0.48559049 -0.014780724
-0.21224169 0.48416471 -0.015979644
-0.24771306 0.49470004 -0.015066527
-0.21171339 0.4931891 -0.015778393
-0.24771307 0.50506473 -0.014986011
-0.21171291 0.50579023 -0.014939534
-0.24771307 0.51603264 -0.015155118
-0.2117129 0.51547867 -0.0150512
-0.24771307 0.52512336 -0.015487253
-0.21171291 0.52552789 -0.015220604
-0.2470464 0.53597307 -0.015517778
-0.2117129 0.53480595 -0.014918999
-0.24771307 0.54511517 -0.015758254
-0.21211319 0.5475443 -0.015577833
-0.24771307 0.55467528 -0.014824195
-0.21171291 0.55571115 -0.015374527
-0.24716461 0.5625816 -0.015706738
-0.21171291 0.56582648 -0.015340457
-0.24724248 0.57604504 -0.01570598
-0.2117129 0.57539737 -0.015912089
-0.24771307 0.58490163 -0.014927319
-0.21245028 0.57953829 -0.015968708
-0.24771307 0.59520894 -0.015394646
-0.21171291 0.5943855 -0.015215743
-0.24711306 0.60168189 -0.01490396
-0.2117129 0.60464501 -0.014698803
-0.24771307 0.61564803 -0.015008089
-0.21171291 0.61558479 -0.014972554
-0.24771307 0.62522417 -0.014187352
-0.2117129 0.62495226 -0.015006006
-0.24771307 0.63472962 -0.015010707
-0.21173479 0.63244081 -0.015726754
-0.24771307 0.64521891 -0.014681256
-0.21232307 0.64407629 -0.015351096
-0.24771306 0.65531963 -0.014796913
-0.21229309 0.64961153 -0.015198267
-0.24771307 0.66450131 -0.014640234
-0.21171291 0.66406262 -0.015051502
-0.24669813 0.66863483 -0.015310742
-0.21171291 0.67516047 -0.015080965
-0.24771306 0.68576831 -0.015333516
-0.21225807 0.68488133 -0.016015295
-0.24576212 0.6961875 -0.015487871
-0.23423699 0.69687074 -0.015283643
-0.22472458 0.69743872 -0.015113138
-0.21379907 0.69389194 -0.015561817
-0.24664861 0.70279121 -0.015102571
-0.21302201 0.70275933 -0.014881423
-0.24644223 0.3164717 -0.0049700588
-0.21317165 0.31760302 -0.0047141467
-0.24612068 0.32355249 -0.00435712
-0.23588417 0.32043913 -0.0051693921
-0.22519469 0.32043892 -0.0047316272
-0.21377365 0.32344693 -0.0043448387
-0.24771307 0.33471742 -0.0038654783
-0.2117129 0.33498794 -0.0051201023
-0.24701615 0.35194287 -0.0059454129
-0.21171291 0.34991235 -0.005390327
-0.24771306 0.35490772 -0.0058759558
-0.2117129 0.35538605 -0.0047015171
-0.24771307 0.36572883 -0.0055241822
-0.2117129 0.36530977 -0.0049868017
-0.2474497 0.37747005 -0.0068599768
-0.21174183 0.38098234 -0.0074810171
-0.24770693 0.38424748 -0.0057265647
-0.2117129 0.38437626 -0.005115998
-0.24740504 0.39941683 -0.0062808567
-0.21171293 0.39489332 -0.0056413375
-0.24673466 0.41119212 -0.0061205579
-0.21234553 0.40996969 -0.0059346845
-0.24771307 0.41526705 -0.0045367582
-0.21206029 0.41607124 -0.0061479844
-0.24771307 0.42472592 -0.0052050767
-0.2117129 0.42479295 -0.0047356491
-0.24771307 0.43489417 -0.0043895179
-0.21246693 0.44199613 -0.0062825042
-0.24705853 0.44760242 -0.0048102248
-0.21171291 0.44405043 -0.0054233475
-0.24771307 0.45494741 -0.0055658659
-0.21290031 0.46003839 -0.0080798203
-0.24771307 0.46533284 -0.0051402575
-0.2117129 0.46496728 -0.0048700948
-0.24658823 0.47900674 -0.006996478
-0.21233703 0.47913405 -0.0060967361
-0.24728678 0.48270664 -0.0061517423
-0.21171291 0.4848699 -0.0056445333
-0.24771307 0.49387965 -0.005624875
-0.21311675 0.49168783 -0.0058504809
-0.24712302 0.50367588 -0.0053738533
-0.21171291 0.50530249 -0.0048525613
-0.24771307 0.51544577 -0.0053221495
-0.21175325 0.51373231 -0.0064171422
-0.24771307 0.52462316 -0.0047665928
-0.21243683 0.52149194 -0.0066250088
-0.24771307 0.53431678 -0.004806987
-0.21219648 0.53400397 -0.0060755969
-0.24771307 0.54501998 -0.0051024728
-0.21171291 0.54551136 -0.0050240355
-0.24771306 0.55350775 -0.0047172373
-0.2117129 0.55510259 -0.0047830935
-0.24771307 0.5647372 -0.004988282
-0.21191098 0.55835193 -0.0063675293
-0.24771307 0.57559776 -0.0052401344
-0.21171291 0.57565653 -0.0048908093
-0.24771307 0.58488452 -0.0045162807
-0.2117129 0.58474243 -0.0052716057
-0.24713257 0.5920257 -0.0054508368
-0.21208397 0.5951277 -0.005470694
-0.24771307 0.60534203 -0.0050157197
-0.21171291 0.60548192 -0.0044369209
-0.24654287 0.61097747 -0.006264009
-0.2117129 0.61499172 -0.0049973717
-0.24771307 0.62414539 -0.0052441219
-0.2117129 0.62097877 -0.0054045967
-0.24659607 0.6252442 -0.0075340448
-0.2117129 0.63441497 -0.0045238123
-0.24771307 0.64474428 -0.0054419003
-0.2117129 0.64428484 -0.0048758425
-0.24771307 0.65540206 -0.0048605232
-0.21171291 0.65445054 -0.0044879126
-0.24771306 0.66513211 -0.0052877003
-0.21225616 0.66510975 -0.0060458523
-0.24771307 0.67506635 -0.0052309432
-0.21171291 0.67469186 -0.0051340614
-0.24771307 0.68511683 -0.0047834455
-0.2117129 0.68493789 -0.0049646366
-0.24567746 0.69629985 -0.0049426425
-0.23485044 0.69743907 -0.0052022915
-0.22526506 0.69743907 -0.0051684603
-0.21377249 0.69325095 -0.0050994954
-0.24672732 0.70262933 -0.0052004158
-0.21255125 0.69746536 -0.0059221731
-0.24626793 0.3161861 0.0054502939
-0.21290322 0.32084909 0.0046895905
-0.24529822 0.32622418 0.0043157991
-0.23441122 0.32559761 0.0044877683
-0.22545345 0.32821614 0.0016650786
-0.21375097 0.32271677 0.0048369179
-0.24771307 0.33525759 0.0051851175
-0.2117129 0.33546439 0.0043059103
-0.24722084 0.34750262 0.0028526417
-0.21223395 0.34733704 0.0042973706
-0.24771307 0.35506478 0.0049714618
-0.21233599 0.3574529 0.0044035059
-0.24771307 0.36488542 0.0053281412
-0.21173565 0.36632931 0.0034831923
-0.24771307 0.37462646 0.004375502
-0.2117129 0.37517029 0.0048571359
-0.24771306 0.38467437 0.0049824882
-0.21230662 0.39007944 0.0036678759
-0.24771307 0.39580351 0.0049394523
-0.2117129 0.39468753 0.0047752019
-0.24771307 0.40539008 0.0053957351
-0.21171291 0.40523803 0.0047576563
-0.24771307 0.41762146 0.003667583
-0.2117129 0.41442275 0.00484712
-0.24771307 0.42435208 0.0047994945
-0.21221994 0.42509121 0.0053290818
-0.24706887 0.43932745 0.0046040029
-0.2117129 0.435013 0.0044387612
-0.24722868 0.44505283 0.0039942623
-0.21171291 0.44499415 0.0059237559
-0.24771307 0.4551051 0.0052719354
-0.21171291 0.45453975 0.0053677876
-0.24771307 0.46476281 0.0048432937
-0.2117129 0.46488917 0.00548909
-0.24771307 0.47548944 0.0053706872
-0.21233872 0.47598866 0.0037884994
-0.24771307 0.48487583 0.0051482697
-0.2117129 0.48510289 0.0046902499
-0.24771306 0.49502951 0.0043424508
-0.21171291 0.49507445 0.0053234054
-0.24771307 0.5054332 0.0055277171
-0.21199596 0.50560611 0.0043398975
-0.24771307 0.51470643 0.0050279167
-0.21171291 0.5145638 0.0062566847
-0.24771306 0.52560872 0.0059449831
-0.21171291 0.52566856 0.0046130694
-0.24707191 0.53851807 0.0029182963
-0.21173719 0.532332 0.0044122026
-0.24719879 0.54169226 0.0044108168
-0.2117129 0.5442819 0.0046705278
-0.24750401 0.55742633 0.004530869
-0.21171291 0.55520946 0.0046292534
-0.24771307 0.565386 0.005054065
-0.21232307 0.56391203 0.0043280544
-0.24771307 0.57497704 0.0056581111
-0.2117129 0.5748021 0.0048324913
-0.24705853 0.5858286 0.0049342918
-0.21171291 0.58563286 0.0054384004
-0.24768475 0.59737855 0.0040747896
-0.21171291 0.59495091 0.0049494244
-0.24771307 0.60493845 0.0051296391
-0.2117129 0.60207778 0.0047375807
-0.24771307 0.61451411 0.005489158
-0.2117385 0.6075024 0.0039086952
-0.24768242 0.61809576 0.0025966745
-0.2117129 0.62546563 0.004671033
-0.24709874 0.62806499 0.0017865461
-0.21171291 0.63557607 0.0058495337
-0.24704687 0.64441377 0.0050657247
-0.21251293 0.63863218 0.0013970637
-0.24771307 0.65523905 0.0040252139
-0.2117129 0.65542239 0.0049331384
-0.24771307 0.66067684 0.004125372
-0.21171293 0.66515815 0.0051156762
-0.24771307 0.67554951 0.0054926793
-0.2117129 0.67468721 0.0051430226
-0.24708961 0.68502504 0.0038207355
-0.2117129 0.68511909 0.0047645522
-0.24623646 0.69653702 0.0047469772
-0.23479937 0.69743884 0.0048074611
-0.22474182 0.69743913 0.0045755138
-0.21385929 0.6962015 0.0044946028
-0.24669261 0.70284367 0.0050355159
-0.21366712 0.69630754 0.0037705989
-0.24647167 0.31572342 0.014854819
-0.21293168 0.31577638 0.014492811
-0.24563885 0.32752925 0.012754262
-0.23493718 0.32043904 0.015271616
-0.22603594 0.32043916 0.014890719
-0.2143254 0.32581714 0.015247343
-0.247665 0.33567977 0.012793987
-0.21231362 0.34208375 0.013012448
-0.24771306 0.34468856 0.015156652
-0.21246415 0.34804848 0.014285236
-0.24771307 0.35683233 0.015576482
-0.21171291 0.35504186 0.01479317
-0.24771306 0.36532101 0.01483305
-0.21171291 0.36528489 0.01441939
-0.2466592 0.38163763 0.011703198
-0.2117129 0.37742168 0.014896882
-0.24771307 0.38528693 0.014886017
-0.21229456 0.38535625 0.011912477
-0.24771307 0.39524409 0.01472053
-0.21241888 0.39699528 0.013687023
-0.24771307 0.40525436 0.014288766
-0.2117129 0.40487835 0.015503141
-0.24771307 0.41528001 0.014994027
-0.21171291 0.41554847 0.015365649
-0.24771306 0.42529368 0.015464141
-0.2117129 0.4254559 0.015006637
-0.24771307 0.43532658 0.014818816
-0.21216869 0.43357497 0.013915102
-0.24714164 0.44488323 0.014571306
-0.2117129 0.44475898 0.014681051
-0.24771307 0.45512262 0.015317854
-0.21233359 0.45307612 0.014189157
-0.24771307 0.46493325 0.014732993
-0.2117129 0.46491182 0.015408413
-0.24771307 0.47439131 0.01435554
-0.21171291 0.47512719 0.014913899
-0.24771306 0.48421758 0.013932155
-0.21171291 0.48500252 0.01510533
-0.24747184 0.4932999 0.01309408
-0.21225835 0.49350929 0.013841555
-0.24770676 0.50320578 0.014473994
-0.2117129 0.50532103 0.015235614
-0.24771307 0.51531059 0.015290694
-0.2117129 0.51491696 0.014413774
-0.24771307 0.52547866 0.015352595
-0.21171291 0.5259667 0.015328567
-0.24771307 0.53402799 0.014208611
-0.21202989 0.53740656 0.013924188
-0.24771307 0.54514301 0.015131933
-0.21171288 0.54535401 0.014429851
-0.24771306 0.55527049 0.015384217
-0.21171291 0.5544852 0.014783036
-0.24771307 0.56537628 0.015378098
-0.21190549 0.56194526 0.014699404
-0.24771307 0.57531053 0.014919222
-0.21227163 0.5700379 0.012941843
-0.24771307 0.58466125 0.014971185
-0.2117129 0.5847857 0.014392593
-0.24771306 0.59418505 0.015128384
-0.21219139 0.59356213 0.013337739
-0.24771307 0.60569006 0.01571689
-0.2117129 0.60540617 0.014306748
-0.24771307 0.61445147 0.014952183
-0.2117129 0.61481476 0.01418764
-0.24771306 0.62481326 0.014836403
-0.21171291 0.62535375 0.014893976
-0.24715923 0.63481814 0.014155747
-0.2117129 0.63541156 0.014662585
-0.24771307 0.64525616 0.015301408
-0.2117129 0.64425761 0.013814817
-0.24771307 0.65546066 0.016064506
-0.21171291 0.6552121 0.014628523
-0.24771306 0.66620994 0.015179585
-0.2117129 0.66421169 0.014960582
-0.24718317 0.66705817 0.013436277
-0.21171291 0.67472768 0.01459442
-0.24618207 0.6732704 0.0094677331
-0.21171291 0.6849975 0.015107113
-0.24555224 0.69453621 0.01460358
-0.23484392 0.69158554 0.013531481
-0.22530544 0.69743866 0.014483993
-0.21389255 0.68828154 0.01360994
-0.2467752 0.70256764 0.01470661
-0.21284981 0.70273888 0.014477357
-0.24668857 0.3160491 0.025084663
-0.21289966 0.31610119 0.024423553
-0.24547336 0.32544228 0.023359735
-0.23462354 0.32071736 0.024703171
-0.22481813 0.32043904 0.025222126
-0.21336986 0.32586998 0.024089737
-0.24771307 0.33525178 0.024326142
-0.2117129 0.33536512 0.024946379
-0.24705464 0.35063392 0.025164682
-0.21171291 0.34531197 0.024577208
-0.24771307 0.35432509 0.024493227
-0.21190365 0.35600898 0.024711505
-0.24624182 0.36915338 0.021260612
-0.21174769 0.36439666 0.023830092
-0.24771307 0.3755731 0.024877787
-0.21283719 0.38092637 0.023572374
-0.24742389 0.38970903 0.022828095
-0.21171291 0.38494134 0.0251188
-0.24771307 0.3949559 0.025004536
-0.21293324 0.40182045 0.023496104
-0.24771307 0.40539023 0.02490964
-0.21171349 0.4074212 0.02408695
-0.24771307 0.41537321 0.024944451
-0.21207875 0.41662961 0.02342369
-0.24771307 0.42482004 0.025540309
-0.2117129 0.42529148 0.024720127
-0.24674858 0.43792868 0.021982636
-0.2117129 0.43463951 0.025402864
-0.24771307 0.44506904 0.025387606
-0.21235576 0.44561291 0.024472928
-0.24771307 0.45514259 0.025177689
-0.21171291 0.45515904 0.025019793
-0.24771306 0.46562627 0.025146348
-0.2117129 0.46390787 0.024713021
-0.24715057 0.47631654 0.024948644
-0.21171291 0.47463009 0.024760675
-0.24771307 0.4850595 0.024944136
-0.2117129 0.48488301 0.025360232
-0.24771307 0.49542052 0.025236893
-0.2117129 0.49479505 0.024970897
-0.24735372 0.50450355 0.02385019
-0.2117129 0.50272262 0.023476362
-0.24771307 0.51537794 0.024752486
-0.21232307 0.51272058 0.023189617
-0.24771307 0.52452219 0.02570208
-0.21172191 0.52595627 0.024076268
-0.24771307 0.53518116 0.025756622
-0.2117129 0.53547925 0.024988858
-0.24771307 0.54563278 0.025252122
-0.21247888 0.54449397 0.023799231
-0.24771307 0.55474705 0.024928393
-0.21232307 0.55585331 0.023972128
-0.24771307 0.56498045 0.024839578
-0.2117129 0.5642786 0.025258262
-0.24771307 0.57465792 0.024983626
-0.2117129 0.57548803 0.024985325
-0.24711306 0.58307403 0.024810044
-0.2117129 0.58074558 0.024019659
-0.24771307 0.59455341 0.024843125
-0.2117129 0.5948965 0.025298851
-0.24771306 0.60555303 0.02515161
-0.21171291 0.60463208 0.025379214
-0.24771307 0.61563134 0.024545364
-0.21171291 0.61503899 0.02483839
-0.24771307 0.62487447 0.024495261
-0.2117129 0.62503135 0.025340164
-0.24771307 0.63534564 0.024999136
-0.21171291 0.6322642 0.023940435
-0.24771307 0.64554232 0.025066257
-0.21171291 0.64471889 0.024704006
-0.24771307 0.65465409 0.023749677
-0.21171293 0.65472406 0.025143305
-0.24771307 0.66505933 0.024993246
-0.21199138 0.65815288 0.023291677
-0.24712336 0.6737994 0.024035539
-0.21172962 0.67190582 0.02311057
-0.24771307 0.68510592 0.024734024
-0.21225022 0.67342633 0.022344125
-0.24618889 0.6964854 0.024235176
-0.23532712 0.69743896 0.0250748
-0.2250291 0.69108504 0.022518223
-0.21395513 0.69184768 0.024354216
-0.24668425 0.70283568 0.025282983
-0.21290846 0.70265919 0.024896935
-0.24663652 0.31644386 0.034850534
-0.21294972 0.3159143 0.034986727
-0.24602795 0.32322103 0.035101332
-0.23547214 0.32813522 0.032674029
-0.22478455 0.32043898 0.034823891
-0.21324819 0.32355088 0.035043739
-0.24648204 0.339535 0.03246849
-0.2117129 0.33522376 0.035028093
-0.24771307 0.34485886 0.035538796
-0.2117129 0.34458172 0.035682056
-0.24771307 0.35531345 0.035130668
-0.21241172 0.35554668 0.031141756
-0.24771306 0.36619306 0.033544403
-0.21320437 0.37154582 0.031602547
-0.24771307 0.37555793 0.034832306
-0.2117129 0.37566268 0.03441181
-0.24771307 0.3852627 0.035215143
-0.2117129 0.38533551 0.034595031
-0.24732177 0.39371744 0.033170406
-0.21171291 0.39491776 0.034407493
-0.24771306 0.40507749 0.035473295
-0.2117129 0.40524673 0.034678966
-0.24705526 0.41839832 0.034373637
-0.21172968 0.41403922 0.033811569
-0.24771306 0.4256745 0.035108641
-0.21223682 0.42553473 0.033289038
-0.24771307 0.43471009 0.035146981
-0.212927 0.44327825 0.030571565
-0.24771307 0.44466287 0.034856278
-0.21171291 0.44498143 0.034296244
-0.24771307 0.45458341 0.035623837
-0.21244197 0.4521322 0.033156987
-0.24771307 0.46493462 0.034837279
-0.2117129 0.46498275 0.035457231
-0.24635457 0.47550881 0.033258505
-0.21171291 0.47550008 0.035474274
-0.24771307 0.48636734 0.034420285
-0.21240522 0.48336157 0.0349776
-0.24771307 0.49476722 0.034774937
-0.21219938 0.49497238 0.03487061
-0.24705717 0.50435901 0.034195803
-0.21171293 0.5047425 0.034920927
-0.24771307 0.51498836 0.034725789
-0.21171291 0.51582718 0.034951579
-0.24771307 0.52471101 0.03496325
-0.21247065 0.52366132 0.033647466
-0.24771307 0.53459674 0.034982018
-0.21218002 0.53315187 0.03071283
-0.24771307 0.54519784 0.035803106
-0.21241391 0.54710937 0.032985192
-0.24771306 0.55495763 0.034883559
-0.21235576 0.55466074 0.034846716
-0.24771307 0.56480646 0.0345851
-0.21171291 0.56490475 0.034879468
-0.24771307 0.57606822 0.034843143
-0.2117129 0.57562035 0.034809824
-0.24771307 0.58452642 0.035039037
-0.21171291 0.58504814 0.034946427
-0.24771307 0.59456784 0.035565633
-0.21171293 0.59318572 0.033853367
-0.24771307 0.60476637 0.035037
-0.21241879 0.60388136 0.034987103
-0.24771307 0.61578482 0.035131764
-0.21233359 0.61061722 0.034867071
-0.24771307 0.62509686 0.035375345
-0.2117129 0.62413788 0.03532419
-0.24689488 0.63545537 0.03498967
-0.21175048 0.63647789 0.034089394
-0.24771307 0.64453423 0.035159521
-0.21171291 0.64474994 0.035427317
-0.24708314 0.65317094 0.034636546
-0.21238108 0.65050447 0.033697695
-0.24731582 0.66168267 0.033450443
-0.21229355 0.66346896 0.033971217
-0.24771307 0.6746195 0.034628227
-0.2117129 0.67535228 0.035315219
-0.24711588 0.67802399 0.034314889
-0.2117129 0.68538672 0.034396663
-0.24582 0.69558734 0.034088541
-0.23585075 0.69326681 0.034030061
-0.22491041 0.69738781 0.034661945
-0.21344754 0.69635129 0.034835324
-0.24603975 0.70087063 0.033346962
-0.21292217 0.70280325 0.035211544
-0.24621281 0.32028532 0.044180647
-0.21349426 0.32461244 0.042490605
-0.24564773 0.32820293 0.04207281
-0.23470818 0.32043904 0.044352062
-0.22576302 0.32749543 0.039605558
-0.21337163 0.32359704 0.04540718
-0.24771307 0.33440012 0.04494087
-0.21171291 0.33455956 0.044889439
-0.24771306 0.34505323 0.044954449
-0.2117129 0.34461582 0.044407051
-0.24771307 0.35496765 0.04451542
-0.21171291 0.35513109 0.045320123
-0.24771307 0.36527914 0.044025015
-0.21171291 0.3654632 0.045348413
-0.24771307 0.37522036 0.044687368
-0.21319236 0.38130695 0.044089142
-0.24771307 0.38460714 0.044809159
-0.21171291 0.38447645 0.045498796
-0.24771307 0.39506656 0.045004971
-0.21229659 0.39557368 0.044004466
-0.24701683 0.40291366 0.043407146
-0.2117129 0.40540013 0.045058899
-0.24713992 0.41948304 0.043610591
-0.21250652 0.42042413 0.042466689
-0.24771307 0.42606011 0.044851631
-0.2117226 0.42331684 0.044465952
-0.2465132 0.43525803 0.044242997
-0.21172591 0.43944126 0.043895647
-0.24688086 0.45175061 0.041831031
-0.21171305 0.44450331 0.044233758
-0.24771307 0.4583964 0.044410471
-0.21233359 0.45297393 0.045084588
-0.24771298 0.46398655 0.044620462
-0.21171291 0.46471331 0.045499995
-0.24771307 0.47513786 0.045012955
-0.21226072 0.47430664 0.044359736
-0.24771307 0.48513305 0.045005675
-0.21171291 0.48560336 0.045085046
-0.24768899 0.4926486 0.043420732
-0.2117129 0.49610502 0.044327613
-0.24771307 0.50692832 0.043974377
-0.2117129 0.5045554 0.044194154
-0.24771307 0.51528788 0.045752257
-0.21171291 0.5148614 0.044131488
-0.24771306 0.52587998 0.044530556
-0.2128973 0.52179044 0.04321171
-0.24771307 0.53421277 0.04535323
-0.21262163 0.52864248 0.04325423
-0.24771306 0.54529595 0.044966783
-0.21172287 0.54420668 0.044874489
-0.24771307 0.55115211 0.043612439
-0.2117129 0.55545938 0.044952013
-0.24771307 0.56441683 0.044826102
-0.21171291 0.56608814 0.044029817
-0.24769446 0.57779217 0.044295654
-0.21171294 0.57475513 0.04461265
-0.24769567 0.58550936 0.042806946
-0.21235201 0.58347052 0.042623755
-0.24721307 0.59230155 0.04539974
-0.2124555 0.59176987 0.04345277
-0.24674533 0.60804045 0.042611364
-0.21171291 0.60494888 0.045085665
-0.24705891 0.61352777 0.043088667
-0.21171291 0.61330599 0.042692907
-0.24771307 0.62504488 0.044786755
-0.2117129 0.62551695 0.044350538
-0.24771307 0.63428777 0.04495981
-0.21225835 0.63232625 0.043768581
-0.24771307 0.64294934 0.043178663
-0.21171291 0.6454373 0.044721927
-0.24771306 0.65528476 0.044966809
-0.21176063 0.65630388 0.044699643
-0.24719028 0.6635921 0.041830644
-0.2117129 0.66504782 0.045601908
-0.24707021 0.6731655 0.043535061
-0.21240522 0.66854244 0.044793688
-0.24685591 0.67788744 0.043583903
-0.21171291 0.68558115 0.044677619
-0.24604298 0.69524574 0.045557857
-0.23485273 0.69743878 0.045403536
-0.22553664 0.69743884 0.045761861
-0.21368402 0.69596684 0.045159098
-0.24605945 0.69702226 0.044000752
-0.21275602 0.69331223 0.043799337
-0.24615195 0.31832612 0.053932741
-0.21287465 0.32174948 0.052987766
-0.24578843 0.33220237 0.054518066
-0.23437715 0.32043904 0.054509293
-0.22554892 0.32189476 0.053599432
-0.214177 0.32705951 0.053704087
-0.24715157 0.33696645 0.054727819
-0.21235001 0.34146476 0.052217457
-0.24771307 0.34536281 0.054512005
-0.21239103 0.35218596 0.05106299
-0.24771196 0.35434401 0.054745231
-0.2117129 0.35473713 0.054936748
-0.24771306 0.36481029 0.054901708
-0.21229221 0.3635996 0.055191863
-0.24771307 0.37507382 0.055697273
-0.21171293 0.37607887 0.055699114
-0.24771307 0.38471332 0.055297852
-0.21226451 0.38922477 0.051911172
-0.24771307 0.39522132 0.054898772
-0.2117129 0.39522749 0.054670502
-0.24771307 0.40546751 0.055376384
-0.21171291 0.40462348 0.055118557
-0.24771307 0.41519469 0.054591678
-0.2117129 0.41493767 0.054063011
-0.24700643 0.42971554 0.054270063
-0.21210536 0.42488503 0.052598957
-0.24709809 0.43269637 0.05267353
-0.2117129 0.43543008 0.054973133
-0.24771306 0.4445546 0.055381656
-0.21171291 0.44476607 0.055795845
-0.24702305 0.46179298 0.051357325
-0.21189168 0.45819759 0.052898847
-0.24771307 0.46545303 0.054507595
-0.21409056 0.47423959 0.046815779
-0.24771307 0.47509339 0.055139251
-0.21171291 0.4786596 0.055045795
-0.24713406 0.48800659 0.053314209
-0.2117129 0.4850136 0.055052862
-0.24771307 0.49460074 0.054721221
-0.21229355 0.49572042 0.053510815
-0.24771307 0.50498992 0.05510306
-0.2117262 0.50209862 0.054674584
-0.24771307 0.51545292 0.05529147
-0.21171291 0.51528269 0.054294128
-0.24771307 0.52371824 0.052457597
-0.21235576 0.52415508 0.053908579
-0.24771307 0.53479487 0.054848872
-0.21171291 0.53517234 0.054328255
-0.24771306 0.54518044 0.054934498
-0.21253967 0.53808421 0.050280064
-0.2442835 0.5419296 0.047711689
-0.2117129 0.55615711 0.05500333
-0.24742721 0.56162119 0.052059989
-0.21171291 0.56525964 0.055777699
-0.24771307 0.57525796 0.054896008
-0.2117129 0.57451004 0.055629548
-0.24771307 0.58517784 0.055233467
-0.21221495 0.58126181 0.053730749
-0.24771307 0.59435093 0.054240055
-0.2117129 0.59226745 0.054731328
-0.2470488 0.60205138 0.054439455
-0.21174714 0.60045475 0.05346005
-0.24771307 0.61412936 0.053975023
-0.21171291 0.61477351 0.054769546
-0.24628745 0.62157673 0.050179575
-0.2117129 0.62524348 0.055347566
-0.24771307 0.63540918 0.055257231
-0.2117129 0.63520879 0.054999255
-0.24767478 0.63718402 0.051103037
-0.21236867 0.6456458 0.054238245
-0.24715923 0.65399289 0.053909291
-0.2117129 0.65449744 0.054757625
-0.24771307 0.66508871 0.054204758
-0.21171291 0.66536289 0.054396849
-0.24740677 0.66705531 0.050203178
-0.21241879 0.67497784 0.052747097
-0.24770622 0.68406993 0.054552354
-0.2117129 0.67964733 0.054737464
-0.24598148 0.69626451 0.054533772
-0.23476449 0.69303691 0.053012561
-0.22466882 0.69743901 0.054802507
-0.21405321 0.69222355 0.051982507
-0.24682353 0.70046324 0.054793186
-0.21325734 0.69984961 0.053364858
-0.24591655 0.32596245 0.061382543
-0.21363844 0.33157811 0.060487296
-0.24587347 0.33172828 0.062792689
-0.23557378 0.32449621 0.06352818
-0.22476485 0.32622561 0.064340271
-0.21368378 0.32317114 0.06501013
-0.24771307 0.33538157 0.064651147
-0.21178143 0.33774137 0.062736355
-0.24771307 0.34459075 0.064799778
-0.2117129 0.34575674 0.064701371
-0.24771307 0.35458475 0.06467995
-0.2123138 0.36089402 0.062416863
-0.24771307 0.36522278 0.065519363
-0.21171291 0.36478746 0.064659096
-0.24664392 0.37946054 0.05782444
-0.2117129 0.38017339 0.062954657
-0.24771307 0.38484776 0.064884253
-0.21171291 0.38440683 0.064728834
-0.24771307 0.39433977 0.064986631
-0.2117129 0.39926103 0.062820368
-0.24690619 0.40290135 0.062472142
-0.21171291 0.40447277 0.064746246
-0.24770057 0.42379093 0.063479364
-0.21171291 0.41456947 0.065765761
-0.24771307 0.42489579 0.065031394
-0.21171291 0.42490929 0.064864948
-0.24771307 0.43450475 0.06490358
-0.2117129 0.43502685 0.064853914
-0.24771306 0.4447878 0.064466715
-0.21171293 0.44572732 0.065137953
-0.24690257 0.45218521 0.059565064
-0.21171291 0.45559964 0.064407617
-0.24771307 0.46491811 0.065845616
-0.21286975 0.46520525 0.060678706
-0.24771306 0.47476995 0.06539546
-0.21233378 0.47242764 0.064366043
-0.24771307 0.48539588 0.065076292
-0.21171291 0.48517197 0.065210961
-0.24771307 0.49522454 0.065662533
-0.21171291 0.49504301 0.063941516
-0.24771307 0.50500822 0.064796224
-0.2117129 0.50511813 0.065119289
-0.24771307 0.51537889 0.065846108
-0.21171291 0.51510686 0.064893775
-0.24723308 0.52581769 0.064798824
-0.2117129 0.52470249 0.065122522
-0.24771307 0.53431749 0.064657383
-0.21175756 0.53150332 0.062199708
-0.24690324 0.54206896 0.0588772
-0.2120523 0.54179388 0.06468679
-0.24771306 0.55521703 0.065131865
-0.21224834 0.55660224 0.064598292
-0.24771307 0.56559283 0.065586321
-0.21247728 0.56176072 0.062542595
-0.24707021 0.5763914 0.063944899
-0.21171293 0.57471359 0.065081827
-0.246393 0.58200413 0.058984999
-0.21173546 0.58445299 0.06272319
-0.24691306 0.59175438 0.064058937
-0.2117129 0.59498423 0.06456735
-0.24771306 0.60592204 0.064538516
-0.21228416 0.60339332 0.0642334
-0.24771306 0.61258459 0.064087607
-0.2117129 0.61526656 0.064938016
-0.24771307 0.62280345 0.06329421
-0.21237296 0.62380433 0.0621683
-0.24703062 0.63661605 0.064625807
-0.21314766 0.63020116 0.062290732
-0.24771306 0.64476943 0.064579949
-0.2117129 0.6451726 0.065140933
-0.24771307 0.65322083 0.063116521
-0.21171291 0.65557426 0.064946309
-0.24771307 0.65843475 0.063007347
-0.2117129 0.66532892 0.064905852
-0.24637569 0.66770977 0.062023595
-0.21171291 0.67433566 0.06471429
-0.24771307 0.68491137 0.064782731
-0.2117129 0.68509138 0.064870417
-0.24590537 0.69481587 0.064057313
-0.23401082 0.68911535 0.060629681
-0.22497174 0.69527549 0.064476818
-0.213241 0.69642049 0.065404683
-0.24619286 0.70031834 0.064210199
-0.21293111 0.70289075 0.065390907
-0.24588175 0.32168058 0.073789231
-0.21273473 0.31553847 0.074781097
-0.24522884 0.32901564 0.071528882
-0.23491165 0.32529071 0.074134484
-0.22492138 0.32976291 0.071073867
-0.21334755 0.3250739 0.074719064
-0.24771307 0.33531851 0.074926399
-0.2117129 0.33497372 0.075294323
-0.24771307 0.3448509 0.074923843
-0.2117129 0.34535307 0.074834242
-0.24771307 0.35493228 0.075186618
-0.2117129 0.35490561 0.074632674
-0.24771307 0.36807504 0.072943546
-0.2117129 0.3642745 0.074637361
-0.24771307 0.37527037 0.074932627
-0.21173257 0.37683153 0.072785743
-0.24684265 0.38884065 0.069819748
-0.21171291 0.38503644 0.074431427
-0.24771307 0.39503732 0.075284369
-0.21171291 0.39561093 0.074810728
-0.2470447 0.40743342 0.072320051
-0.2117129 0.40525976 0.075447194
-0.24771307 0.4147484 0.073940523
-0.21195829 0.417694 0.072253622
-0.24771307 0.42456362 0.07499072
-0.21171291 0.42547557 0.074776188
-0.24720603 0.43684527 0.074127093
-0.21171291 0.43481416 0.074974716
-0.24702075 0.44901168 0.072383434
-0.21257055 0.44849104 0.070453458
-0.24701822 0.45493862 0.07301157
-0.2117129 0.45470878 0.074207813
-0.24771307 0.46863547 0.074426465
-0.2117129 0.46524411 0.074576855
-0.24771307 0.47463146 0.07469362
-0.21222529 0.47504476 0.07387612
-0.24771307 0.48507148 0.075300708
-0.21241879 0.48542213 0.073865972
-0.24771307 0.49496302 0.074715063
-0.21171293 0.49368155 0.075221881
-0.24770413 0.50548279 0.073537767
-0.21171291 0.50487739 0.074371301
-0.24771306 0.51562524 0.074987113
-0.21171291 0.51528972 0.075578511
-0.24721307 0.52413917 0.073723465
-0.2117129 0.52558726 0.075444899
-0.24764305 0.5383144 0.071695633
-0.2117129 0.53526592 0.075029619
-0.24771307 0.54478282 0.075166523
-0.21171291 0.54501593 0.075090528
-0.24771306 0.55530578 0.07504157
-0.2117129 0.55535704 0.07510715
-0.24771307 0.56518167 0.074598417
-0.21176468 0.56729895 0.072471552
-0.24771307 0.57554668 0.07474646
-0.21232307 0.5749352 0.073364347
-0.24694711 0.58587986 0.07439255
-0.2117129 0.58541197 0.075112917
-0.24771307 0.59122509 0.073558904
-0.2117129 0.59531516 0.074638553
-0.24771306 0.60547686 0.075179644
-0.2117129 0.60455716 0.074696183
-0.2470464 0.6098659 0.071965963
-0.21270165 0.61043227 0.071888857
-0.24748924 0.62656778 0.073468506
-0.2117129 0.62520611 0.075625233
-0.24771307 0.63539177 0.07487075
-0.21175398 0.63000238 0.074601039
-0.24703382 0.64430296 0.074502721
-0.2122754 0.64051902 0.071722269
-0.24714592 0.65542537 0.074840508
-0.2117136 0.65395343 0.072856538
-0.24771307 0.66457546 0.075241886
-0.2117129 0.66486305 0.075044565
-0.24727516 0.66639876 0.072363459
-0.21283107 0.67432255 0.073718153
-0.24771307 0.67937762 0.073368222
-0.2117129 0.68526995 0.075384766
-0.24571943 0.69584751 0.074000597
-0.23441079 0.69419503 0.074447609
-0.22507322 0.6974389 0.074674226
-0.21387868 0.69339406 0.073845387
-0.24597743 0.69622666 0.073490314
-0.21379004 0.69720447 0.072425403
-0.24389559 0.31974369 0.08075121
-0.23476414 0.31547928 0.082750715
-0.22491869 0.31877053 0.081096835
-0.21595152 0.31988615 0.082922086
-0.24483337 0.33027706 0.08308281
-0.23503727 0.32043901 0.080111876
-0.22599134 0.3202723 0.080203138
-0.21430998 0.32482672 0.085437976
-0.24505034 0.34142378 0.082999706
-0.21436468 0.3350704 0.085737996
-0.24545869 0.34497827 0.085310161
-0.21459499 0.34570593 0.084035166
-0.24517535 0.35709745 0.082902752
-0.21469451 0.35514355 0.086003192
-0.24554801 0.36754882 0.084752999
-0.21437863 0.36435497 0.085784554
-0.24546209 0.37493688 0.085347243
-0.21542273 0.38311192 0.084547594
-0.24571261 0.38474917 0.084989876
-0.21434067 0.38609886 0.083923191
-0.24500936 0.39523587 0.085836649
-0.21463978 0.39715987 0.079152972
-0.24411267 0.41784528 0.080938354
-0.21387404 0.40528774 0.085237823
-0.24526191 0.41486335 0.085458219
-0.21398249 0.4149875 0.085365146
-0.2438741 0.4252637 0.083719775
-0.21444362 0.42611599 0.084735222
-0.24531387 0.43489203 0.08560551
-0.21496812 0.43282378 0.083131611
-0.24448454 0.45434728 0.081868172
-0.21498477 0.44478315 0.08366961
-0.24537939 0.4549197 0.08543054
-0.21482727 0.45534682 0.086136371
-0.24551146 0.46504444 0.085004836
-0.21463087 0.46488062 0.086045668
-0.24443495 0.47649255 0.085480765
-0.2141957 0.47484022 0.0855285
-0.24480742 0.48522177 0.08604598
-0.21427371 0.4850277 0.085663162
-0.24491867 0.4969587 0.084221162
-0.2149912 0.49642548 0.083721928
-0.24473061 0.50580609 0.085393734
-0.21348356 0.50425047 0.08458773
-0.24462295 0.51423961 0.084136561
-0.21416226 0.51552165 0.082472682
-0.24501449 0.51878542 0.082209833
-0.21428929 0.52434659 0.085721314
-0.24471195 0.53530306 0.084012084
-0.21387924 0.53517127 0.085145317
-0.24495633 0.54283488 0.082387373
-0.2143852 0.54517192 0.085615933
-0.24512412 0.55542696 0.085744992
-0.21462893 0.55480158 0.08600682
-0.24452135 0.56233996 0.085391387
-0.21444388 0.56519616 0.085676879
-0.24530016 0.57504016 0.085477576
-0.21553889 0.57103878 0.08400026
-0.24527948 0.58495516 0.085403055
-0.21470715 0.58286798 0.082718685
-0.24552451 0.59083426 0.084983021
-0.21388648 0.59483701 0.085197859
-0.24503365 0.60050917 0.084900104
-0.21400018 0.60479796 0.085066587
-0.24483374 0.61546314 0.085882775
-0.21465695 0.61526787 0.085974887
-0.24516556 0.62097442 0.085138209
-0.21497293 0.62254667 0.084517673
-0.24516748 0.63490576 0.085200101
-0.21456525 0.63281113 0.083467484
-0.24509363 0.64224559 0.085185029
-0.21434465 0.64466321 0.085719466
-0.24432202 0.65469563 0.086432122
-0.21387921 0.65514845 0.084562816
-0.2445536 0.65845513 0.082306124
-0.21526678 0.65689385 0.084538199
-0.2451897 0.67119133 0.085051589
-0.21497615 0.6726439 0.085322075
-0.24516003 0.68107539 0.084007032
-0.21404856 0.68525136 0.085448392
-0.24470845 0.69542015 0.085370347
-0.23484986 0.69870251 0.080228768
-0.22469251 0.69866574 0.080244735
-0.21476395 0.69552594 0.085561939
-0.24282944 0.70154899 0.081902333
-0.23456717 0.70200342 0.081764869
-0.2247013 0.70389909 0.08362101
-0.21605937 0.70051843 0.082460418
-0.24030451 0.31511575 0.090169407
-0.23444124 0.32132578 0.090151533
-0.22658396 0.32016677 0.089994229
-0.21967334 0.31682885 0.090512916
-0.24020746 0.32511833 0.090233527
-0.23382507 0.32932472 0.091632709
-0.22402658 0.32586753 0.092174128
-0.21950479 0.32506049 0.09042263
-0.23545714 0.38895521 0.076017596
-0.23534872 0.33557644 0.092204005
-0.22451173 0.3470808 0.089704141
-0.2195034 0.33561546 0.090421721
-0.240283 0.34575343 0.090183623
-0.23463811 0.34641206 0.09001071
-0.22406153 0.34823939 0.090126798
